# .PCD v0.7 - Point Cloud Data file format
VERSION 0.7
FIELDS x y z
SIZE 4 4 4
TYPE F F F
COUNT 1 1 1
WIDTH 1513
HEIGHT 1
VIEWPOINT 0 0 0 1 0 0 0
POINTS 1513
DATA ascii
2.7611942 0.72139311 0.82699996
2.7611942 0.72139311 0.87681246
2.7611942 0.72139311 0.92662495
2.7611942 0.72139311 0.97643745
2.7611942 0.72139311 1.02625
2.7611942 0.72139311 1.0760624
2.7611942 0.72139311 1.125875
2.7611942 0.72139311 1.1756874
2.7611942 0.72139311 1.2255
2.7611942 0.72139311 1.2753124
2.7611942 0.72139311 1.325125
2.7611942 0.72139311 1.3749374
2.7611942 0.72139311 1.42475
2.7611942 0.72139311 1.4745624
2.7611942 0.72139311 1.524375
2.7611942 0.67164183 0.97643745
2.7611942 0.67164183 1.524375
2.7611942 0.62189054 0.97643745
2.7611942 0.62189054 1.524375
2.7611942 0.57213926 0.97643745
2.7611942 0.57213926 1.524375
2.7611942 0.52238798 0.97643745
2.7611942 0.52238798 1.524375
2.7611942 0.4726367 0.97643745
2.7611942 0.4726367 1.524375
2.7611942 0.42288542 0.97643745
2.7611942 0.42288542 1.524375
2.7611942 0.37313414 0.97643745
2.7611942 0.37313414 1.524375
2.7611942 0.32338285 0.029999999
2.7611942 0.32338285 0.079812497
2.7611942 0.32338285 0.12962499
2.7611942 0.32338285 0.1794375
2.7611942 0.32338285 0.22925
2.7611942 0.32338285 0.27906248
2.7611942 0.32338285 0.32887501
2.7611942 0.32338285 0.3786875
2.7611942 0.32338285 0.4285
2.7611942 0.32338285 0.47831249
2.7611942 0.32338285 0.52812499
2.7611942 0.32338285 0.57793748
2.7611942 0.32338285 0.62774998
2.7611942 0.32338285 0.67756248
2.7611942 0.32338285 0.72737497
2.7611942 0.32338285 0.77718747
2.7611942 0.32338285 0.82699996
2.7611942 0.32338285 0.87681246
2.7611942 0.32338285 0.92662495
2.7611942 0.32338285 0.97643745
2.7611942 0.32338285 1.524375
2.7611942 0.27363157 0.029999999
2.7611942 0.27363157 0.079812497
2.7611942 0.27363157 0.12962499
2.7611942 0.27363157 0.1794375
2.7611942 0.27363157 0.22925
2.7611942 0.27363157 0.27906248
2.7611942 0.27363157 0.32887501
2.7611942 0.27363157 0.3786875
2.7611942 0.27363157 0.4285
2.7611942 0.27363157 0.47831249
2.7611942 0.27363157 0.52812499
2.7611942 0.27363157 0.57793748
2.7611942 0.27363157 0.62774998
2.7611942 0.27363157 0.67756248
2.7611942 0.27363157 0.72737497
2.7611942 0.27363157 0.77718747
2.7611942 0.27363157 0.82699996
2.7611942 0.27363157 0.87681246
2.7611942 0.27363157 0.92662495
2.7611942 0.27363157 1.524375
2.7611942 0.22388077 1.524375
2.7611942 0.17412949 1.524375
2.7611942 0.1243782 1.524375
2.7611942 0.074626923 1.524375
2.7611942 0.024875641 1.524375
2.7611942 -0.024875641 1.524375
2.7611942 -0.074626923 1.524375
2.7611942 -0.1243782 1.524375
2.7611942 -0.17412949 1.524375
2.7611942 -0.22388077 1.524375
2.7611942 -0.27363205 0.029999999
2.7611942 -0.27363205 0.079812497
2.7611942 -0.27363205 0.12962499
2.7611942 -0.27363205 0.1794375
2.7611942 -0.27363205 0.22925
2.7611942 -0.27363205 0.27906248
2.7611942 -0.27363205 0.32887501
2.7611942 -0.27363205 0.3786875
2.7611942 -0.27363205 0.4285
2.7611942 -0.27363205 0.47831249
2.7611942 -0.27363205 0.52812499
2.7611942 -0.27363205 0.57793748
2.7611942 -0.27363205 0.62774998
2.7611942 -0.27363205 0.67756248
2.7611942 -0.27363205 0.72737497
2.7611942 -0.27363205 0.77718747
2.7611942 -0.27363205 0.82699996
2.7611942 -0.27363205 0.87681246
2.7611942 -0.27363205 0.92662495
2.7611942 -0.27363205 1.524375
2.7611942 -0.32338333 0.029999999
2.7611942 -0.32338333 0.079812497
2.7611942 -0.32338333 0.12962499
2.7611942 -0.32338333 0.1794375
2.7611942 -0.32338333 0.22925
2.7611942 -0.32338333 0.27906248
2.7611942 -0.32338333 0.32887501
2.7611942 -0.32338333 0.3786875
2.7611942 -0.32338333 0.4285
2.7611942 -0.32338333 0.47831249
2.7611942 -0.32338333 0.52812499
2.7611942 -0.32338333 0.57793748
2.7611942 -0.32338333 0.62774998
2.7611942 -0.32338333 0.67756248
2.7611942 -0.32338333 0.72737497
2.7611942 -0.32338333 0.77718747
2.7611942 -0.32338333 0.82699996
2.7611942 -0.32338333 0.87681246
2.7611942 -0.32338333 0.92662495
2.7611942 -0.32338333 0.97643745
2.7611942 -0.32338333 1.524375
2.7611942 -0.37313461 0.97643745
2.7611942 -0.37313461 1.524375
2.7611942 -0.42288542 0.97643745
2.7611942 -0.42288542 1.524375
2.7611942 -0.4726367 0.97643745
2.7611942 -0.4726367 1.524375
2.7611942 -0.52238798 0.97643745
2.7611942 -0.52238798 1.524375
2.7611942 -0.57213926 0.97643745
2.7611942 -0.57213926 1.524375
2.7611942 -0.62189054 0.97643745
2.7611942 -0.62189054 1.524375
2.7611942 -0.67164183 0.97643745
2.7611942 -0.67164183 1.524375
2.7611942 -0.72139311 0.029999999
2.7611942 -0.72139311 0.079812497
2.7611942 -0.72139311 0.12962499
2.7611942 -0.72139311 0.1794375
2.7611942 -0.72139311 0.22925
2.7611942 -0.72139311 0.27906248
2.7611942 -0.72139311 0.32887501
2.7611942 -0.72139311 0.3786875
2.7611942 -0.72139311 0.4285
2.7611942 -0.72139311 0.47831249
2.7611942 -0.72139311 0.52812499
2.7611942 -0.72139311 0.57793748
2.7611942 -0.72139311 0.62774998
2.7611942 -0.72139311 0.67756248
2.7611942 -0.72139311 0.72737497
2.7611942 -0.72139311 0.77718747
2.7611942 -0.72139311 0.82699996
2.7611942 -0.72139311 0.87681246
2.7611942 -0.72139311 0.92662495
2.7611942 -0.72139311 0.97643745
2.7611942 -0.72139311 1.02625
2.7611942 -0.72139311 1.0760624
2.7611942 -0.72139311 1.125875
2.7611942 -0.72139311 1.1756874
2.7611942 -0.72139311 1.2255
2.7611942 -0.72139311 1.2753124
2.7611942 -0.72139311 1.325125
2.7611942 -0.72139311 1.3749374
2.7611942 -0.72139311 1.42475
2.7611942 -0.72139311 1.4745624
2.7611942 -0.72139311 1.524375
2.7611942 -0.77114439 0.029999999
2.7611942 -0.77114439 0.079812497
2.7611942 -0.77114439 0.12962499
2.7611942 -0.77114439 0.1794375
2.7611942 -0.77114439 0.22925
2.7611942 -0.77114439 0.27906248
2.7611942 -0.77114439 0.32887501
2.7611942 -0.77114439 0.3786875
2.7611942 -0.77114439 0.4285
2.7611942 -0.77114439 0.47831249
2.7611942 -0.77114439 0.52812499
2.7611942 -0.77114439 0.57793748
2.7611942 -0.77114439 0.62774998
2.7611942 -0.77114439 0.67756248
2.7611942 -0.77114439 0.72737497
2.7611942 -0.77114439 0.77718747
2.7611942 -0.77114439 0.82699996
2.7611942 -0.77114439 0.87681246
2.7611942 -0.77114439 0.92662495
2.7611942 -0.77114439 0.97643745
2.7611942 -0.77114439 1.02625
2.7611942 -0.77114439 1.0760624
2.7611942 -0.77114439 1.125875
2.7611942 -0.77114439 1.1756874
2.7611942 -0.77114439 1.2255
2.7611942 -0.77114439 1.2753124
2.7611942 -0.77114439 1.325125
2.7611942 -0.77114439 1.3749374
2.7611942 -0.77114439 1.42475
2.7611942 -0.77114439 1.4745624
2.7611942 -0.77114439 1.524375
2.7611942 -0.82089567 0.97643745
2.7611942 -0.87064695 0.97643745
2.7611942 -0.92039824 0.029999999
2.7611942 -0.92039824 0.079812497
2.7611942 -0.92039824 0.12962499
2.7611942 -0.92039824 0.1794375
2.7611942 -0.92039824 0.22925
2.7611942 -0.92039824 0.27906248
2.7611942 -0.92039824 0.32887501
2.7611942 -0.92039824 0.3786875
2.7611942 -0.92039824 0.4285
2.7611942 -0.92039824 0.47831249
2.7611942 -0.92039824 0.52812499
2.7611942 -0.92039824 0.57793748
2.7611942 -0.92039824 0.62774998
2.7611942 -0.92039824 0.67756248
2.7611942 -0.92039824 0.72737497
2.7611942 -0.92039824 0.77718747
2.7611942 -0.92039824 0.82699996
2.7611942 -0.92039824 0.87681246
2.7611942 -0.92039824 0.92662495
2.7611942 -0.92039824 0.97643745
2.7611942 -0.97014952 0.029999999
2.7611942 -0.97014952 0.079812497
2.7611942 -0.97014952 0.12962499
2.7611942 -0.97014952 0.1794375
2.7611942 -0.97014952 0.22925
2.7611942 -0.97014952 0.27906248
2.7611942 -0.97014952 0.32887501
2.7611942 -0.97014952 0.3786875
2.7611942 -0.97014952 0.4285
2.7611942 -0.97014952 0.47831249
2.7611942 -0.97014952 0.52812499
2.7611942 -0.97014952 0.57793748
2.7611942 -0.97014952 0.62774998
2.7611942 -0.97014952 0.67756248
2.7611942 -0.97014952 0.72737497
2.7611942 -0.97014952 0.77718747
2.7611942 -0.97014952 0.82699996
2.7611942 -0.97014952 0.87681246
2.7611942 -0.97014952 0.92662495
2.8109455 0.87064648 0.029999999
2.8109455 0.87064648 0.079812497
2.8109455 0.87064648 0.12962499
2.8109455 0.87064648 0.1794375
2.8109455 0.87064648 0.22925
2.8109455 0.87064648 0.27906248
2.8109455 0.87064648 0.32887501
2.8109455 0.87064648 0.3786875
2.8109455 0.87064648 0.4285
2.8109455 0.87064648 0.47831249
2.8109455 0.87064648 0.52812499
2.8109455 0.87064648 0.57793748
2.8109455 0.87064648 0.62774998
2.8109455 0.87064648 0.67756248
2.8109455 0.87064648 0.72737497
2.8109455 0.87064648 0.77718747
2.8109455 0.87064648 0.82699996
2.8109455 0.87064648 0.87681246
2.8109455 0.87064648 0.92662495
2.8109455 0.87064648 0.97643745
2.8109455 0.87064648 1.02625
2.8109455 0.87064648 1.0760624
2.8109455 0.87064648 1.125875
2.8109455 0.87064648 1.1756874
2.8109455 0.87064648 1.2255
2.8109455 0.87064648 1.2753124
2.8109455 0.87064648 1.325125
2.8109455 0.87064648 1.3749374
2.8109455 0.87064648 1.42475
2.8109455 0.87064648 1.4745624
2.8109455 0.87064648 1.524375
2.8109455 0.82089567 0.029999999
2.8109455 0.82089567 0.079812497
2.8109455 0.82089567 0.12962499
2.8109455 0.82089567 0.1794375
2.8109455 0.82089567 0.22925
2.8109455 0.82089567 0.27906248
2.8109455 0.82089567 0.32887501
2.8109455 0.82089567 0.3786875
2.8109455 0.82089567 0.4285
2.8109455 0.82089567 0.47831249
2.8109455 0.82089567 0.52812499
2.8109455 0.82089567 0.57793748
2.8109455 0.82089567 0.62774998
2.8109455 0.82089567 0.67756248
2.8109455 0.82089567 0.72737497
2.8109455 0.82089567 0.77718747
2.8109455 0.82089567 0.82699996
2.8109455 0.82089567 0.87681246
2.8109455 0.82089567 0.92662495
2.8109455 0.82089567 0.97643745
2.8109455 0.82089567 1.02625
2.8109455 0.82089567 1.0760624
2.8109455 0.82089567 1.125875
2.8109455 0.82089567 1.1756874
2.8109455 0.82089567 1.2255
2.8109455 0.82089567 1.2753124
2.8109455 0.82089567 1.325125
2.8109455 0.82089567 1.3749374
2.8109455 0.82089567 1.42475
2.8109455 0.82089567 1.4745624
2.8109455 0.82089567 1.524375
2.8109455 0.77114439 0.97643745
2.8109455 0.77114439 1.524375
2.8109455 0.72139311 0.97643745
2.8109455 0.72139311 1.524375
2.8109455 0.67164183 0.97643745
2.8109455 0.67164183 1.524375
2.8109455 0.62189054 0.97643745
2.8109455 0.62189054 1.524375
2.8109455 0.57213926 0.97643745
2.8109455 0.57213926 1.524375
2.8109455 0.52238798 0.97643745
2.8109455 0.52238798 1.524375
2.8109455 0.4726367 0.97643745
2.8109455 0.4726367 1.524375
2.8109455 0.42288542 0.97643745
2.8109455 0.42288542 1.524375
2.8109455 0.37313414 0.97643745
2.8109455 0.37313414 1.524375
2.8109455 0.32338285 0.97643745
2.8109455 0.32338285 1.524375
2.8109455 0.27363157 0.97643745
2.8109455 0.27363157 1.524375
2.8109455 0.22388077 0.029999999
2.8109455 0.22388077 0.079812497
2.8109455 0.22388077 0.12962499
2.8109455 0.22388077 0.1794375
2.8109455 0.22388077 0.22925
2.8109455 0.22388077 0.27906248
2.8109455 0.22388077 0.32887501
2.8109455 0.22388077 0.3786875
2.8109455 0.22388077 0.4285
2.8109455 0.22388077 0.47831249
2.8109455 0.22388077 0.52812499
2.8109455 0.22388077 0.57793748
2.8109455 0.22388077 0.62774998
2.8109455 0.22388077 0.67756248
2.8109455 0.22388077 0.72737497
2.8109455 0.22388077 0.77718747
2.8109455 0.22388077 0.82699996
2.8109455 0.22388077 0.87681246
2.8109455 0.22388077 0.92662495
2.8109455 0.22388077 0.97643745
2.8109455 0.22388077 1.524375
2.8109455 0.17412949 0.029999999
2.8109455 0.17412949 0.079812497
2.8109455 0.17412949 0.12962499
2.8109455 0.17412949 0.1794375
2.8109455 0.17412949 0.22925
2.8109455 0.17412949 0.27906248
2.8109455 0.17412949 0.32887501
2.8109455 0.17412949 0.3786875
2.8109455 0.17412949 0.4285
2.8109455 0.17412949 0.47831249
2.8109455 0.17412949 0.52812499
2.8109455 0.17412949 0.57793748
2.8109455 0.17412949 0.62774998
2.8109455 0.17412949 0.67756248
2.8109455 0.17412949 0.72737497
2.8109455 0.17412949 0.77718747
2.8109455 0.17412949 0.82699996
2.8109455 0.17412949 0.87681246
2.8109455 0.17412949 0.92662495
2.8109455 0.17412949 1.524375
2.8109455 0.1243782 1.524375
2.8109455 0.074626923 1.524375
2.8109455 0.024875641 1.524375
2.8109455 -0.024875641 1.524375
2.8109455 -0.074626923 1.524375
2.8109455 -0.1243782 1.524375
2.8109455 -0.17412949 0.029999999
2.8109455 -0.17412949 0.079812497
2.8109455 -0.17412949 0.12962499
2.8109455 -0.17412949 0.1794375
2.8109455 -0.17412949 0.22925
2.8109455 -0.17412949 0.27906248
2.8109455 -0.17412949 0.32887501
2.8109455 -0.17412949 0.3786875
2.8109455 -0.17412949 0.4285
2.8109455 -0.17412949 0.47831249
2.8109455 -0.17412949 0.52812499
2.8109455 -0.17412949 0.57793748
2.8109455 -0.17412949 0.62774998
2.8109455 -0.17412949 0.67756248
2.8109455 -0.17412949 0.72737497
2.8109455 -0.17412949 0.77718747
2.8109455 -0.17412949 0.82699996
2.8109455 -0.17412949 0.87681246
2.8109455 -0.17412949 0.92662495
2.8109455 -0.17412949 1.524375
2.8109455 -0.22388077 0.029999999
2.8109455 -0.22388077 0.079812497
2.8109455 -0.22388077 0.12962499
2.8109455 -0.22388077 0.1794375
2.8109455 -0.22388077 0.22925
2.8109455 -0.22388077 0.27906248
2.8109455 -0.22388077 0.32887501
2.8109455 -0.22388077 0.3786875
2.8109455 -0.22388077 0.4285
2.8109455 -0.22388077 0.47831249
2.8109455 -0.22388077 0.52812499
2.8109455 -0.22388077 0.57793748
2.8109455 -0.22388077 0.62774998
2.8109455 -0.22388077 0.67756248
2.8109455 -0.22388077 0.72737497
2.8109455 -0.22388077 0.77718747
2.8109455 -0.22388077 0.82699996
2.8109455 -0.22388077 0.87681246
2.8109455 -0.22388077 0.92662495
2.8109455 -0.22388077 0.97643745
2.8109455 -0.22388077 1.524375
2.8109455 -0.27363205 0.97643745
2.8109455 -0.27363205 1.524375
2.8109455 -0.32338333 0.97643745
2.8109455 -0.32338333 1.524375
2.8109455 -0.37313461 0.97643745
2.8109455 -0.37313461 1.524375
2.8109455 -0.42288542 0.97643745
2.8109455 -0.42288542 1.524375
2.8109455 -0.4726367 0.97643745
2.8109455 -0.4726367 1.524375
2.8109455 -0.52238798 0.97643745
2.8109455 -0.52238798 1.524375
2.8109455 -0.57213926 0.97643745
2.8109455 -0.57213926 1.524375
2.8109455 -0.62189054 0.97643745
2.8109455 -0.62189054 1.524375
2.8109455 -0.67164183 0.97643745
2.8109455 -0.67164183 1.524375
2.8109455 -0.72139311 0.97643745
2.8109455 -0.72139311 1.524375
2.8109455 -0.77114439 0.97643745
2.8109455 -0.77114439 1.524375
2.8109455 -0.82089567 0.029999999
2.8109455 -0.82089567 0.079812497
2.8109455 -0.82089567 0.12962499
2.8109455 -0.82089567 0.1794375
2.8109455 -0.82089567 0.22925
2.8109455 -0.82089567 0.27906248
2.8109455 -0.82089567 0.32887501
2.8109455 -0.82089567 0.3786875
2.8109455 -0.82089567 0.4285
2.8109455 -0.82089567 0.47831249
2.8109455 -0.82089567 0.52812499
2.8109455 -0.82089567 0.57793748
2.8109455 -0.82089567 0.62774998
2.8109455 -0.82089567 0.67756248
2.8109455 -0.82089567 0.72737497
2.8109455 -0.82089567 0.77718747
2.8109455 -0.82089567 0.82699996
2.8109455 -0.82089567 0.87681246
2.8109455 -0.82089567 0.92662495
2.8109455 -0.82089567 0.97643745
2.8109455 -0.82089567 1.02625
2.8109455 -0.82089567 1.0760624
2.8109455 -0.82089567 1.125875
2.8109455 -0.82089567 1.1756874
2.8109455 -0.82089567 1.2255
2.8109455 -0.82089567 1.2753124
2.8109455 -0.82089567 1.325125
2.8109455 -0.82089567 1.3749374
2.8109455 -0.82089567 1.42475
2.8109455 -0.82089567 1.4745624
2.8109455 -0.82089567 1.524375
2.8109455 -0.87064695 0.029999999
2.8109455 -0.87064695 0.079812497
2.8109455 -0.87064695 0.12962499
2.8109455 -0.87064695 0.1794375
2.8109455 -0.87064695 0.22925
2.8109455 -0.87064695 0.27906248
2.8109455 -0.87064695 0.32887501
2.8109455 -0.87064695 0.3786875
2.8109455 -0.87064695 0.4285
2.8109455 -0.87064695 0.47831249
2.8109455 -0.87064695 0.52812499
2.8109455 -0.87064695 0.57793748
2.8109455 -0.87064695 0.62774998
2.8109455 -0.87064695 0.67756248
2.8109455 -0.87064695 0.72737497
2.8109455 -0.87064695 0.77718747
2.8109455 -0.87064695 0.82699996
2.8109455 -0.87064695 0.87681246
2.8109455 -0.87064695 0.92662495
2.8109455 -0.87064695 0.97643745
2.8109455 -0.87064695 1.02625
2.8109455 -0.87064695 1.0760624
2.8109455 -0.87064695 1.125875
2.8109455 -0.87064695 1.1756874
2.8109455 -0.87064695 1.2255
2.8109455 -0.87064695 1.2753124
2.8109455 -0.87064695 1.325125
2.8109455 -0.87064695 1.3749374
2.8109455 -0.87064695 1.42475
2.8109455 -0.87064695 1.4745624
2.8109455 -0.87064695 1.524375
2.8606968 0.97014904 0.029999999
2.8606968 0.97014904 0.079812497
2.8606968 0.97014904 0.12962499
2.8606968 0.97014904 0.1794375
2.8606968 0.97014904 0.22925
2.8606968 0.97014904 0.27906248
2.8606968 0.97014904 0.32887501
2.8606968 0.97014904 0.3786875
2.8606968 0.97014904 0.4285
2.8606968 0.97014904 0.47831249
2.8606968 0.97014904 0.52812499
2.8606968 0.97014904 0.57793748
2.8606968 0.97014904 0.62774998
2.8606968 0.97014904 0.67756248
2.8606968 0.97014904 0.72737497
2.8606968 0.97014904 0.77718747
2.8606968 0.97014904 0.82699996
2.8606968 0.97014904 0.87681246
2.8606968 0.97014904 0.92662495
2.8606968 0.97014904 0.97643745
2.8606968 0.97014904 1.02625
2.8606968 0.97014904 1.0760624
2.8606968 0.97014904 1.125875
2.8606968 0.97014904 1.1756874
2.8606968 0.97014904 1.2255
2.8606968 0.97014904 1.2753124
2.8606968 0.97014904 1.325125
2.8606968 0.97014904 1.3749374
2.8606968 0.97014904 1.42475
2.8606968 0.97014904 1.4745624
2.8606968 0.97014904 1.524375
2.8606968 0.92039776 0.029999999
2.8606968 0.92039776 0.079812497
2.8606968 0.92039776 0.12962499
2.8606968 0.92039776 0.1794375
2.8606968 0.92039776 0.22925
2.8606968 0.92039776 0.27906248
2.8606968 0.92039776 0.32887501
2.8606968 0.92039776 0.3786875
2.8606968 0.92039776 0.4285
2.8606968 0.92039776 0.47831249
2.8606968 0.92039776 0.52812499
2.8606968 0.92039776 0.57793748
2.8606968 0.92039776 0.62774998
2.8606968 0.92039776 0.67756248
2.8606968 0.92039776 0.72737497
2.8606968 0.92039776 0.77718747
2.8606968 0.92039776 0.82699996
2.8606968 0.92039776 0.87681246
2.8606968 0.92039776 0.92662495
2.8606968 0.92039776 0.97643745
2.8606968 0.92039776 1.02625
2.8606968 0.92039776 1.0760624
2.8606968 0.92039776 1.125875
2.8606968 0.92039776 1.1756874
2.8606968 0.92039776 1.2255
2.8606968 0.92039776 1.2753124
2.8606968 0.92039776 1.325125
2.8606968 0.92039776 1.3749374
2.8606968 0.92039776 1.42475
2.8606968 0.92039776 1.4745624
2.8606968 0.92039776 1.524375
2.8606968 0.87064648 1.524375
2.8606968 0.82089567 1.524375
2.8606968 0.77114439 0.029999999
2.8606968 0.77114439 0.079812497
2.8606968 0.77114439 0.12962499
2.8606968 0.77114439 0.1794375
2.8606968 0.77114439 0.22925
2.8606968 0.77114439 0.27906248
2.8606968 0.77114439 0.32887501
2.8606968 0.77114439 0.3786875
2.8606968 0.77114439 0.4285
2.8606968 0.77114439 0.47831249
2.8606968 0.77114439 0.52812499
2.8606968 0.77114439 0.57793748
2.8606968 0.77114439 0.62774998
2.8606968 0.77114439 0.67756248
2.8606968 0.77114439 0.72737497
2.8606968 0.77114439 0.77718747
2.8606968 0.77114439 0.82699996
2.8606968 0.77114439 0.87681246
2.8606968 0.77114439 0.92662495
2.8606968 0.77114439 1.524375
2.8606968 0.72139311 0.029999999
2.8606968 0.72139311 0.079812497
2.8606968 0.72139311 0.12962499
2.8606968 0.72139311 0.1794375
2.8606968 0.72139311 0.22925
2.8606968 0.72139311 0.27906248
2.8606968 0.72139311 0.32887501
2.8606968 0.72139311 0.3786875
2.8606968 0.72139311 0.4285
2.8606968 0.72139311 0.47831249
2.8606968 0.72139311 0.52812499
2.8606968 0.72139311 0.57793748
2.8606968 0.72139311 0.62774998
2.8606968 0.72139311 0.67756248
2.8606968 0.72139311 0.72737497
2.8606968 0.72139311 0.77718747
2.8606968 0.72139311 0.82699996
2.8606968 0.72139311 0.87681246
2.8606968 0.72139311 0.92662495
2.8606968 0.72139311 0.97643745
2.8606968 0.72139311 1.524375
2.8606968 0.67164183 0.97643745
2.8606968 0.67164183 1.524375
2.8606968 0.62189054 0.97643745
2.8606968 0.62189054 1.524375
2.8606968 0.57213926 0.97643745
2.8606968 0.57213926 1.524375
2.8606968 0.52238798 0.97643745
2.8606968 0.52238798 1.524375
2.8606968 0.4726367 0.97643745
2.8606968 0.4726367 1.524375
2.8606968 0.42288542 0.97643745
2.8606968 0.42288542 1.524375
2.8606968 0.37313414 0.97643745
2.8606968 0.37313414 1.524375
2.8606968 0.32338285 0.97643745
2.8606968 0.32338285 1.524375
2.8606968 0.27363157 0.97643745
2.8606968 0.27363157 1.524375
2.8606968 0.22388077 0.97643745
2.8606968 0.22388077 1.524375
2.8606968 0.17412949 0.97643745
2.8606968 0.17412949 1.524375
2.8606968 0.1243782 0.029999999
2.8606968 0.1243782 0.079812497
2.8606968 0.1243782 0.12962499
2.8606968 0.1243782 0.1794375
2.8606968 0.1243782 0.22925
2.8606968 0.1243782 0.27906248
2.8606968 0.1243782 0.32887501
2.8606968 0.1243782 0.3786875
2.8606968 0.1243782 0.4285
2.8606968 0.1243782 0.47831249
2.8606968 0.1243782 0.52812499
2.8606968 0.1243782 0.57793748
2.8606968 0.1243782 0.62774998
2.8606968 0.1243782 0.67756248
2.8606968 0.1243782 0.72737497
2.8606968 0.1243782 0.77718747
2.8606968 0.1243782 0.82699996
2.8606968 0.1243782 0.87681246
2.8606968 0.1243782 0.92662495
2.8606968 0.1243782 1.524375
2.8606968 0.074626923 1.524375
2.8606968 0.024875641 1.524375
2.8606968 -0.024875641 1.524375
2.8606968 -0.074626923 1.524375
2.8606968 -0.1243782 0.029999999
2.8606968 -0.1243782 0.079812497
2.8606968 -0.1243782 0.12962499
2.8606968 -0.1243782 0.1794375
2.8606968 -0.1243782 0.22925
2.8606968 -0.1243782 0.27906248
2.8606968 -0.1243782 0.32887501
2.8606968 -0.1243782 0.3786875
2.8606968 -0.1243782 0.4285
2.8606968 -0.1243782 0.47831249
2.8606968 -0.1243782 0.52812499
2.8606968 -0.1243782 0.57793748
2.8606968 -0.1243782 0.62774998
2.8606968 -0.1243782 0.67756248
2.8606968 -0.1243782 0.72737497
2.8606968 -0.1243782 0.77718747
2.8606968 -0.1243782 0.82699996
2.8606968 -0.1243782 0.87681246
2.8606968 -0.1243782 0.92662495
2.8606968 -0.1243782 1.524375
2.8606968 -0.17412949 0.97643745
2.8606968 -0.17412949 1.524375
2.8606968 -0.22388077 0.97643745
2.8606968 -0.22388077 1.524375
2.8606968 -0.27363205 0.97643745
2.8606968 -0.27363205 1.524375
2.8606968 -0.32338333 0.97643745
2.8606968 -0.32338333 1.524375
2.8606968 -0.37313461 0.97643745
2.8606968 -0.37313461 1.524375
2.8606968 -0.42288542 0.97643745
2.8606968 -0.42288542 1.524375
2.8606968 -0.4726367 0.97643745
2.8606968 -0.4726367 1.524375
2.8606968 -0.52238798 0.97643745
2.8606968 -0.52238798 1.524375
2.8606968 -0.57213926 0.97643745
2.8606968 -0.57213926 1.524375
2.8606968 -0.62189054 0.97643745
2.8606968 -0.62189054 1.524375
2.8606968 -0.67164183 0.97643745
2.8606968 -0.67164183 1.524375
2.8606968 -0.72139311 0.029999999
2.8606968 -0.72139311 0.079812497
2.8606968 -0.72139311 0.12962499
2.8606968 -0.72139311 0.1794375
2.8606968 -0.72139311 0.22925
2.8606968 -0.72139311 0.27906248
2.8606968 -0.72139311 0.32887501
2.8606968 -0.72139311 0.3786875
2.8606968 -0.72139311 0.4285
2.8606968 -0.72139311 0.47831249
2.8606968 -0.72139311 0.52812499
2.8606968 -0.72139311 0.57793748
2.8606968 -0.72139311 0.62774998
2.8606968 -0.72139311 0.67756248
2.8606968 -0.72139311 0.72737497
2.8606968 -0.72139311 0.77718747
2.8606968 -0.72139311 0.82699996
2.8606968 -0.72139311 0.87681246
2.8606968 -0.72139311 0.92662495
2.8606968 -0.72139311 0.97643745
2.8606968 -0.72139311 1.524375
2.8606968 -0.77114439 0.029999999
2.8606968 -0.77114439 0.079812497
2.8606968 -0.77114439 0.12962499
2.8606968 -0.77114439 0.1794375
2.8606968 -0.77114439 0.22925
2.8606968 -0.77114439 0.27906248
2.8606968 -0.77114439 0.32887501
2.8606968 -0.77114439 0.3786875
2.8606968 -0.77114439 0.4285
2.8606968 -0.77114439 0.47831249
2.8606968 -0.77114439 0.52812499
2.8606968 -0.77114439 0.57793748
2.8606968 -0.77114439 0.62774998
2.8606968 -0.77114439 0.67756248
2.8606968 -0.77114439 0.72737497
2.8606968 -0.77114439 0.77718747
2.8606968 -0.77114439 0.82699996
2.8606968 -0.77114439 0.87681246
2.8606968 -0.77114439 0.92662495
2.8606968 -0.77114439 1.524375
2.8606968 -0.82089567 1.524375
2.8606968 -0.87064695 1.524375
2.8606968 -0.92039824 0.029999999
2.8606968 -0.92039824 0.079812497
2.8606968 -0.92039824 0.12962499
2.8606968 -0.92039824 0.1794375
2.8606968 -0.92039824 0.22925
2.8606968 -0.92039824 0.27906248
2.8606968 -0.92039824 0.32887501
2.8606968 -0.92039824 0.3786875
2.8606968 -0.92039824 0.4285
2.8606968 -0.92039824 0.47831249
2.8606968 -0.92039824 0.52812499
2.8606968 -0.92039824 0.57793748
2.8606968 -0.92039824 0.62774998
2.8606968 -0.92039824 0.67756248
2.8606968 -0.92039824 0.72737497
2.8606968 -0.92039824 0.77718747
2.8606968 -0.92039824 0.82699996
2.8606968 -0.92039824 0.87681246
2.8606968 -0.92039824 0.92662495
2.8606968 -0.92039824 0.97643745
2.8606968 -0.92039824 1.02625
2.8606968 -0.92039824 1.0760624
2.8606968 -0.92039824 1.125875
2.8606968 -0.92039824 1.1756874
2.8606968 -0.92039824 1.2255
2.8606968 -0.92039824 1.2753124
2.8606968 -0.92039824 1.325125
2.8606968 -0.92039824 1.3749374
2.8606968 -0.92039824 1.42475
2.8606968 -0.92039824 1.4745624
2.8606968 -0.92039824 1.524375
2.8606968 -0.97014952 0.029999999
2.8606968 -0.97014952 0.079812497
2.8606968 -0.97014952 0.12962499
2.8606968 -0.97014952 0.1794375
2.8606968 -0.97014952 0.22925
2.8606968 -0.97014952 0.27906248
2.8606968 -0.97014952 0.32887501
2.8606968 -0.97014952 0.3786875
2.8606968 -0.97014952 0.4285
2.8606968 -0.97014952 0.47831249
2.8606968 -0.97014952 0.52812499
2.8606968 -0.97014952 0.57793748
2.8606968 -0.97014952 0.62774998
2.8606968 -0.97014952 0.67756248
2.8606968 -0.97014952 0.72737497
2.8606968 -0.97014952 0.77718747
2.8606968 -0.97014952 0.82699996
2.8606968 -0.97014952 0.87681246
2.8606968 -0.97014952 0.92662495
2.8606968 -0.97014952 0.97643745
2.8606968 -0.97014952 1.02625
2.8606968 -0.97014952 1.0760624
2.8606968 -0.97014952 1.125875
2.8606968 -0.97014952 1.1756874
2.8606968 -0.97014952 1.2255
2.8606968 -0.97014952 1.2753124
2.8606968 -0.97014952 1.325125
2.8606968 -0.97014952 1.3749374
2.8606968 -0.97014952 1.42475
2.8606968 -0.97014952 1.4745624
2.8606968 -0.97014952 1.524375
2.9104481 1.0199003 0.029999999
2.9104481 1.0199003 0.079812497
2.9104481 1.0199003 0.12962499
2.9104481 1.0199003 0.1794375
2.9104481 1.0199003 0.22925
2.9104481 1.0199003 0.27906248
2.9104481 1.0199003 0.32887501
2.9104481 1.0199003 0.3786875
2.9104481 1.0199003 0.4285
2.9104481 1.0199003 0.47831249
2.9104481 1.0199003 0.52812499
2.9104481 1.0199003 0.57793748
2.9104481 1.0199003 0.62774998
2.9104481 1.0199003 0.67756248
2.9104481 1.0199003 0.72737497
2.9104481 1.0199003 0.77718747
2.9104481 1.0199003 0.82699996
2.9104481 1.0199003 0.87681246
2.9104481 1.0199003 0.92662495
2.9104481 1.0199003 0.97643745
2.9104481 1.0199003 1.02625
2.9104481 1.0199003 1.0760624
2.9104481 1.0199003 1.125875
2.9104481 1.0199003 1.1756874
2.9104481 1.0199003 1.2255
2.9104481 1.0199003 1.2753124
2.9104481 1.0199003 1.325125
2.9104481 1.0199003 1.3749374
2.9104481 1.0199003 1.42475
2.9104481 1.0199003 1.4745624
2.9104481 1.0199003 1.524375
2.9104481 0.97014904 0.029999999
2.9104481 0.97014904 0.079812497
2.9104481 0.97014904 0.12962499
2.9104481 0.97014904 0.1794375
2.9104481 0.97014904 0.22925
2.9104481 0.97014904 0.27906248
2.9104481 0.97014904 0.32887501
2.9104481 0.97014904 0.3786875
2.9104481 0.97014904 0.4285
2.9104481 0.97014904 0.47831249
2.9104481 0.97014904 0.52812499
2.9104481 0.97014904 0.57793748
2.9104481 0.97014904 0.62774998
2.9104481 0.97014904 0.67756248
2.9104481 0.97014904 0.72737497
2.9104481 0.97014904 0.77718747
2.9104481 0.97014904 0.82699996
2.9104481 0.97014904 0.87681246
2.9104481 0.97014904 0.92662495
2.9104481 0.97014904 0.97643745
2.9104481 0.97014904 1.02625
2.9104481 0.97014904 1.0760624
2.9104481 0.97014904 1.125875
2.9104481 0.97014904 1.1756874
2.9104481 0.97014904 1.2255
2.9104481 0.97014904 1.2753124
2.9104481 0.97014904 1.325125
2.9104481 0.97014904 1.3749374
2.9104481 0.97014904 1.42475
2.9104481 0.97014904 1.4745624
2.9104481 0.97014904 1.524375
2.9104481 0.92039776 1.524375
2.9104481 0.87064648 1.524375
2.9104481 0.82089567 1.524375
2.9104481 0.77114439 1.524375
2.9104481 0.72139311 1.524375
2.9104481 0.67164183 0.029999999
2.9104481 0.67164183 0.079812497
2.9104481 0.67164183 0.12962499
2.9104481 0.67164183 0.1794375
2.9104481 0.67164183 0.22925
2.9104481 0.67164183 0.27906248
2.9104481 0.67164183 0.32887501
2.9104481 0.67164183 0.3786875
2.9104481 0.67164183 0.4285
2.9104481 0.67164183 0.47831249
2.9104481 0.67164183 0.52812499
2.9104481 0.67164183 0.57793748
2.9104481 0.67164183 0.62774998
2.9104481 0.67164183 0.67756248
2.9104481 0.67164183 0.72737497
2.9104481 0.67164183 0.77718747
2.9104481 0.67164183 0.82699996
2.9104481 0.67164183 0.87681246
2.9104481 0.67164183 0.92662495
2.9104481 0.67164183 0.97643745
2.9104481 0.67164183 1.524375
2.9104481 0.62189054 0.97643745
2.9104481 0.62189054 1.524375
2.9104481 0.57213926 0.97643745
2.9104481 0.57213926 1.524375
2.9104481 0.52238798 0.97643745
2.9104481 0.52238798 1.524375
2.9104481 0.4726367 0.97643745
2.9104481 0.4726367 1.524375
2.9104481 0.42288542 0.97643745
2.9104481 0.42288542 1.524375
2.9104481 0.37313414 0.97643745
2.9104481 0.37313414 1.524375
2.9104481 0.32338285 0.97643745
2.9104481 0.32338285 1.524375
2.9104481 0.27363157 0.97643745
2.9104481 0.27363157 1.524375
2.9104481 0.22388077 0.97643745
2.9104481 0.22388077 1.524375
2.9104481 0.17412949 0.97643745
2.9104481 0.17412949 1.524375
2.9104481 0.1243782 0.97643745
2.9104481 0.1243782 1.524375
2.9104481 0.074626923 0.029999999
2.9104481 0.074626923 0.079812497
2.9104481 0.074626923 0.12962499
2.9104481 0.074626923 0.1794375
2.9104481 0.074626923 0.22925
2.9104481 0.074626923 0.27906248
2.9104481 0.074626923 0.32887501
2.9104481 0.074626923 0.3786875
2.9104481 0.074626923 0.4285
2.9104481 0.074626923 0.47831249
2.9104481 0.074626923 0.52812499
2.9104481 0.074626923 0.57793748
2.9104481 0.074626923 0.62774998
2.9104481 0.074626923 0.67756248
2.9104481 0.074626923 0.72737497
2.9104481 0.074626923 0.77718747
2.9104481 0.074626923 0.82699996
2.9104481 0.074626923 0.87681246
2.9104481 0.074626923 0.92662495
2.9104481 0.074626923 0.97643745
2.9104481 0.074626923 1.524375
2.9104481 0.024875641 0.029999999
2.9104481 0.024875641 0.079812497
2.9104481 0.024875641 0.12962499
2.9104481 0.024875641 0.1794375
2.9104481 0.024875641 0.22925
2.9104481 0.024875641 0.27906248
2.9104481 0.024875641 0.32887501
2.9104481 0.024875641 0.3786875
2.9104481 0.024875641 0.4285
2.9104481 0.024875641 0.47831249
2.9104481 0.024875641 0.52812499
2.9104481 0.024875641 0.57793748
2.9104481 0.024875641 0.62774998
2.9104481 0.024875641 0.67756248
2.9104481 0.024875641 0.72737497
2.9104481 0.024875641 0.77718747
2.9104481 0.024875641 0.82699996
2.9104481 0.024875641 0.87681246
2.9104481 0.024875641 0.92662495
2.9104481 0.024875641 1.524375
2.9104481 -0.024875641 0.029999999
2.9104481 -0.024875641 0.079812497
2.9104481 -0.024875641 0.12962499
2.9104481 -0.024875641 0.1794375
2.9104481 -0.024875641 0.22925
2.9104481 -0.024875641 0.27906248
2.9104481 -0.024875641 0.32887501
2.9104481 -0.024875641 0.3786875
2.9104481 -0.024875641 0.4285
2.9104481 -0.024875641 0.47831249
2.9104481 -0.024875641 0.52812499
2.9104481 -0.024875641 0.57793748
2.9104481 -0.024875641 0.62774998
2.9104481 -0.024875641 0.67756248
2.9104481 -0.024875641 0.72737497
2.9104481 -0.024875641 0.77718747
2.9104481 -0.024875641 0.82699996
2.9104481 -0.024875641 0.87681246
2.9104481 -0.024875641 0.92662495
2.9104481 -0.024875641 1.524375
2.9104481 -0.074626923 0.029999999
2.9104481 -0.074626923 0.079812497
2.9104481 -0.074626923 0.12962499
2.9104481 -0.074626923 0.1794375
2.9104481 -0.074626923 0.22925
2.9104481 -0.074626923 0.27906248
2.9104481 -0.074626923 0.32887501
2.9104481 -0.074626923 0.3786875
2.9104481 -0.074626923 0.4285
2.9104481 -0.074626923 0.47831249
2.9104481 -0.074626923 0.52812499
2.9104481 -0.074626923 0.57793748
2.9104481 -0.074626923 0.62774998
2.9104481 -0.074626923 0.67756248
2.9104481 -0.074626923 0.72737497
2.9104481 -0.074626923 0.77718747
2.9104481 -0.074626923 0.82699996
2.9104481 -0.074626923 0.87681246
2.9104481 -0.074626923 0.92662495
2.9104481 -0.074626923 0.97643745
2.9104481 -0.074626923 1.524375
2.9104481 -0.1243782 0.97643745
2.9104481 -0.1243782 1.524375
2.9104481 -0.17412949 0.97643745
2.9104481 -0.17412949 1.524375
2.9104481 -0.22388077 0.97643745
2.9104481 -0.22388077 1.524375
2.9104481 -0.27363205 0.97643745
2.9104481 -0.27363205 1.524375
2.9104481 -0.32338333 0.97643745
2.9104481 -0.32338333 1.524375
2.9104481 -0.37313461 0.97643745
2.9104481 -0.37313461 1.524375
2.9104481 -0.42288542 0.97643745
2.9104481 -0.42288542 1.524375
2.9104481 -0.4726367 0.97643745
2.9104481 -0.4726367 1.524375
2.9104481 -0.52238798 0.97643745
2.9104481 -0.52238798 1.524375
2.9104481 -0.57213926 0.97643745
2.9104481 -0.57213926 1.524375
2.9104481 -0.62189054 0.97643745
2.9104481 -0.62189054 1.524375
2.9104481 -0.67164183 0.029999999
2.9104481 -0.67164183 0.079812497
2.9104481 -0.67164183 0.12962499
2.9104481 -0.67164183 0.1794375
2.9104481 -0.67164183 0.22925
2.9104481 -0.67164183 0.27906248
2.9104481 -0.67164183 0.32887501
2.9104481 -0.67164183 0.3786875
2.9104481 -0.67164183 0.4285
2.9104481 -0.67164183 0.47831249
2.9104481 -0.67164183 0.52812499
2.9104481 -0.67164183 0.57793748
2.9104481 -0.67164183 0.62774998
2.9104481 -0.67164183 0.67756248
2.9104481 -0.67164183 0.72737497
2.9104481 -0.67164183 0.77718747
2.9104481 -0.67164183 0.82699996
2.9104481 -0.67164183 0.87681246
2.9104481 -0.67164183 0.92662495
2.9104481 -0.67164183 0.97643745
2.9104481 -0.67164183 1.524375
2.9104481 -0.72139311 1.524375
2.9104481 -0.77114439 1.524375
2.9104481 -0.82089567 1.524375
2.9104481 -0.87064695 1.524375
2.9104481 -0.92039824 1.524375
2.9104481 -0.97014952 0.029999999
2.9104481 -0.97014952 0.079812497
2.9104481 -0.97014952 0.12962499
2.9104481 -0.97014952 0.1794375
2.9104481 -0.97014952 0.22925
2.9104481 -0.97014952 0.27906248
2.9104481 -0.97014952 0.32887501
2.9104481 -0.97014952 0.3786875
2.9104481 -0.97014952 0.4285
2.9104481 -0.97014952 0.47831249
2.9104481 -0.97014952 0.52812499
2.9104481 -0.97014952 0.57793748
2.9104481 -0.97014952 0.62774998
2.9104481 -0.97014952 0.67756248
2.9104481 -0.97014952 0.72737497
2.9104481 -0.97014952 0.77718747
2.9104481 -0.97014952 0.82699996
2.9104481 -0.97014952 0.87681246
2.9104481 -0.97014952 0.92662495
2.9104481 -0.97014952 0.97643745
2.9104481 -0.97014952 1.02625
2.9104481 -0.97014952 1.0760624
2.9104481 -0.97014952 1.125875
2.9104481 -0.97014952 1.1756874
2.9104481 -0.97014952 1.2255
2.9104481 -0.97014952 1.2753124
2.9104481 -0.97014952 1.325125
2.9104481 -0.97014952 1.3749374
2.9104481 -0.97014952 1.42475
2.9104481 -0.97014952 1.4745624
2.9104481 -0.97014952 1.524375
2.9104481 -1.0199008 0.029999999
2.9104481 -1.0199008 0.079812497
2.9104481 -1.0199008 0.12962499
2.9104481 -1.0199008 0.1794375
2.9104481 -1.0199008 0.22925
2.9104481 -1.0199008 0.27906248
2.9104481 -1.0199008 0.32887501
2.9104481 -1.0199008 0.3786875
2.9104481 -1.0199008 0.4285
2.9104481 -1.0199008 0.47831249
2.9104481 -1.0199008 0.52812499
2.9104481 -1.0199008 0.57793748
2.9104481 -1.0199008 0.62774998
2.9104481 -1.0199008 0.67756248
2.9104481 -1.0199008 0.72737497
2.9104481 -1.0199008 0.77718747
2.9104481 -1.0199008 0.82699996
2.9104481 -1.0199008 0.87681246
2.9104481 -1.0199008 0.92662495
2.9104481 -1.0199008 0.97643745
2.9104481 -1.0199008 1.02625
2.9104481 -1.0199008 1.0760624
2.9104481 -1.0199008 1.125875
2.9104481 -1.0199008 1.1756874
2.9104481 -1.0199008 1.2255
2.9104481 -1.0199008 1.2753124
2.9104481 -1.0199008 1.325125
2.9104481 -1.0199008 1.3749374
2.9104481 -1.0199008 1.42475
2.9104481 -1.0199008 1.4745624
2.9104481 -1.0199008 1.524375
2.9601994 1.0199003 0.029999999
2.9601994 1.0199003 0.079812497
2.9601994 1.0199003 0.12962499
2.9601994 1.0199003 0.1794375
2.9601994 1.0199003 0.22925
2.9601994 1.0199003 0.27906248
2.9601994 1.0199003 0.32887501
2.9601994 1.0199003 0.3786875
2.9601994 1.0199003 0.4285
2.9601994 1.0199003 0.47831249
2.9601994 1.0199003 0.52812499
2.9601994 1.0199003 0.57793748
2.9601994 1.0199003 0.62774998
2.9601994 1.0199003 0.67756248
2.9601994 1.0199003 0.72737497
2.9601994 1.0199003 0.77718747
2.9601994 1.0199003 0.82699996
2.9601994 1.0199003 0.87681246
2.9601994 1.0199003 0.92662495
2.9601994 1.0199003 0.97643745
2.9601994 1.0199003 1.02625
2.9601994 1.0199003 1.0760624
2.9601994 1.0199003 1.125875
2.9601994 1.0199003 1.1756874
2.9601994 1.0199003 1.2255
2.9601994 1.0199003 1.2753124
2.9601994 1.0199003 1.325125
2.9601994 1.0199003 1.3749374
2.9601994 1.0199003 1.42475
2.9601994 1.0199003 1.4745624
2.9601994 1.0199003 1.524375
2.9601994 0.97014904 1.524375
2.9601994 0.92039776 1.524375
2.9601994 0.87064648 1.524375
2.9601994 0.82089567 1.524375
2.9601994 0.77114439 1.524375
2.9601994 0.72139311 1.524375
2.9601994 0.67164183 1.524375
2.9601994 0.62189054 0.029999999
2.9601994 0.62189054 0.079812497
2.9601994 0.62189054 0.12962499
2.9601994 0.62189054 0.1794375
2.9601994 0.62189054 0.22925
2.9601994 0.62189054 0.27906248
2.9601994 0.62189054 0.32887501
2.9601994 0.62189054 0.3786875
2.9601994 0.62189054 0.4285
2.9601994 0.62189054 0.47831249
2.9601994 0.62189054 0.52812499
2.9601994 0.62189054 0.57793748
2.9601994 0.62189054 0.62774998
2.9601994 0.62189054 0.67756248
2.9601994 0.62189054 0.72737497
2.9601994 0.62189054 0.77718747
2.9601994 0.62189054 0.82699996
2.9601994 0.62189054 0.87681246
2.9601994 0.62189054 0.92662495
2.9601994 0.62189054 1.524375
2.9601994 0.57213926 0.029999999
2.9601994 0.57213926 0.079812497
2.9601994 0.57213926 0.12962499
2.9601994 0.57213926 0.1794375
2.9601994 0.57213926 0.22925
2.9601994 0.57213926 0.27906248
2.9601994 0.57213926 0.32887501
2.9601994 0.57213926 0.3786875
2.9601994 0.57213926 0.4285
2.9601994 0.57213926 0.47831249
2.9601994 0.57213926 0.52812499
2.9601994 0.57213926 0.57793748
2.9601994 0.57213926 0.62774998
2.9601994 0.57213926 0.67756248
2.9601994 0.57213926 0.72737497
2.9601994 0.57213926 0.77718747
2.9601994 0.57213926 0.82699996
2.9601994 0.57213926 0.87681246
2.9601994 0.57213926 0.92662495
2.9601994 0.57213926 0.97643745
2.9601994 0.57213926 1.524375
2.9601994 0.52238798 0.97643745
2.9601994 0.52238798 1.524375
2.9601994 0.4726367 0.97643745
2.9601994 0.4726367 1.524375
2.9601994 0.42288542 0.97643745
2.9601994 0.42288542 1.524375
2.9601994 0.37313414 0.97643745
2.9601994 0.37313414 1.524375
2.9601994 0.32338285 0.97643745
2.9601994 0.32338285 1.524375
2.9601994 0.27363157 0.97643745
2.9601994 0.27363157 1.524375
2.9601994 0.22388077 0.97643745
2.9601994 0.22388077 1.524375
2.9601994 0.17412949 0.97643745
2.9601994 0.17412949 1.524375
2.9601994 0.1243782 0.97643745
2.9601994 0.1243782 1.524375
2.9601994 0.074626923 0.97643745
2.9601994 0.074626923 1.524375
2.9601994 0.024875641 0.97643745
2.9601994 0.024875641 1.524375
2.9601994 -0.024875641 0.97643745
2.9601994 -0.024875641 1.524375
2.9601994 -0.074626923 0.97643745
2.9601994 -0.074626923 1.524375
2.9601994 -0.1243782 0.97643745
2.9601994 -0.1243782 1.524375
2.9601994 -0.17412949 0.97643745
2.9601994 -0.17412949 1.524375
2.9601994 -0.22388077 0.97643745
2.9601994 -0.22388077 1.524375
2.9601994 -0.27363205 0.97643745
2.9601994 -0.27363205 1.524375
2.9601994 -0.32338333 0.97643745
2.9601994 -0.32338333 1.524375
2.9601994 -0.37313461 0.97643745
2.9601994 -0.37313461 1.524375
2.9601994 -0.42288542 0.97643745
2.9601994 -0.42288542 1.524375
2.9601994 -0.4726367 0.97643745
2.9601994 -0.4726367 1.524375
2.9601994 -0.52238798 0.97643745
2.9601994 -0.52238798 1.524375
2.9601994 -0.57213926 0.029999999
2.9601994 -0.57213926 0.079812497
2.9601994 -0.57213926 0.12962499
2.9601994 -0.57213926 0.1794375
2.9601994 -0.57213926 0.22925
2.9601994 -0.57213926 0.27906248
2.9601994 -0.57213926 0.32887501
2.9601994 -0.57213926 0.3786875
2.9601994 -0.57213926 0.4285
2.9601994 -0.57213926 0.47831249
2.9601994 -0.57213926 0.52812499
2.9601994 -0.57213926 0.57793748
2.9601994 -0.57213926 0.62774998
2.9601994 -0.57213926 0.67756248
2.9601994 -0.57213926 0.72737497
2.9601994 -0.57213926 0.77718747
2.9601994 -0.57213926 0.82699996
2.9601994 -0.57213926 0.87681246
2.9601994 -0.57213926 0.92662495
2.9601994 -0.57213926 0.97643745
2.9601994 -0.57213926 1.524375
2.9601994 -0.62189054 0.029999999
2.9601994 -0.62189054 0.079812497
2.9601994 -0.62189054 0.12962499
2.9601994 -0.62189054 0.1794375
2.9601994 -0.62189054 0.22925
2.9601994 -0.62189054 0.27906248
2.9601994 -0.62189054 0.32887501
2.9601994 -0.62189054 0.3786875
2.9601994 -0.62189054 0.4285
2.9601994 -0.62189054 0.47831249
2.9601994 -0.62189054 0.52812499
2.9601994 -0.62189054 0.57793748
2.9601994 -0.62189054 0.62774998
2.9601994 -0.62189054 0.67756248
2.9601994 -0.62189054 0.72737497
2.9601994 -0.62189054 0.77718747
2.9601994 -0.62189054 0.82699996
2.9601994 -0.62189054 0.87681246
2.9601994 -0.62189054 0.92662495
2.9601994 -0.62189054 1.524375
2.9601994 -0.67164183 1.524375
2.9601994 -0.72139311 1.524375
2.9601994 -0.77114439 1.524375
2.9601994 -0.82089567 1.524375
2.9601994 -0.87064695 1.524375
2.9601994 -0.92039824 1.524375
2.9601994 -0.97014952 1.524375
2.9601994 -1.0199008 0.029999999
2.9601994 -1.0199008 0.079812497
2.9601994 -1.0199008 0.12962499
2.9601994 -1.0199008 0.1794375
2.9601994 -1.0199008 0.22925
2.9601994 -1.0199008 0.27906248
2.9601994 -1.0199008 0.32887501
2.9601994 -1.0199008 0.3786875
2.9601994 -1.0199008 0.4285
2.9601994 -1.0199008 0.47831249
2.9601994 -1.0199008 0.52812499
2.9601994 -1.0199008 0.57793748
2.9601994 -1.0199008 0.62774998
2.9601994 -1.0199008 0.67756248
2.9601994 -1.0199008 0.72737497
2.9601994 -1.0199008 0.77718747
2.9601994 -1.0199008 0.82699996
2.9601994 -1.0199008 0.87681246
2.9601994 -1.0199008 0.92662495
2.9601994 -1.0199008 0.97643745
2.9601994 -1.0199008 1.02625
2.9601994 -1.0199008 1.0760624
2.9601994 -1.0199008 1.125875
2.9601994 -1.0199008 1.1756874
2.9601994 -1.0199008 1.2255
2.9601994 -1.0199008 1.2753124
2.9601994 -1.0199008 1.325125
2.9601994 -1.0199008 1.3749374
2.9601994 -1.0199008 1.42475
2.9601994 -1.0199008 1.4745624
2.9601994 -1.0199008 1.524375
3.0099506 1.0199003 0.029999999
3.0099506 1.0199003 0.079812497
3.0099506 1.0199003 0.12962499
3.0099506 1.0199003 0.1794375
3.0099506 1.0199003 0.22925
3.0099506 1.0199003 0.27906248
3.0099506 1.0199003 0.32887501
3.0099506 1.0199003 0.3786875
3.0099506 1.0199003 0.4285
3.0099506 1.0199003 0.47831249
3.0099506 1.0199003 0.52812499
3.0099506 1.0199003 0.57793748
3.0099506 1.0199003 0.62774998
3.0099506 1.0199003 0.67756248
3.0099506 1.0199003 0.72737497
3.0099506 1.0199003 0.77718747
3.0099506 1.0199003 0.82699996
3.0099506 1.0199003 0.87681246
3.0099506 1.0199003 0.92662495
3.0099506 1.0199003 0.97643745
3.0099506 1.0199003 1.02625
3.0099506 1.0199003 1.0760624
3.0099506 1.0199003 1.125875
3.0099506 1.0199003 1.1756874
3.0099506 1.0199003 1.2255
3.0099506 1.0199003 1.2753124
3.0099506 1.0199003 1.325125
3.0099506 1.0199003 1.3749374
3.0099506 1.0199003 1.42475
3.0099506 1.0199003 1.4745624
3.0099506 1.0199003 1.524375
3.0099506 0.97014904 1.524375
3.0099506 0.92039776 1.524375
3.0099506 0.87064648 1.524375
3.0099506 0.82089567 1.524375
3.0099506 0.77114439 1.524375
3.0099506 0.72139311 1.524375
3.0099506 0.67164183 1.524375
3.0099506 0.62189054 1.524375
3.0099506 0.57213926 1.524375
3.0099506 0.52238798 0.029999999
3.0099506 0.52238798 0.079812497
3.0099506 0.52238798 0.12962499
3.0099506 0.52238798 0.1794375
3.0099506 0.52238798 0.22925
3.0099506 0.52238798 0.27906248
3.0099506 0.52238798 0.32887501
3.0099506 0.52238798 0.3786875
3.0099506 0.52238798 0.4285
3.0099506 0.52238798 0.47831249
3.0099506 0.52238798 0.52812499
3.0099506 0.52238798 0.57793748
3.0099506 0.52238798 0.62774998
3.0099506 0.52238798 0.67756248
3.0099506 0.52238798 0.72737497
3.0099506 0.52238798 0.77718747
3.0099506 0.52238798 0.82699996
3.0099506 0.52238798 0.87681246
3.0099506 0.52238798 0.92662495
3.0099506 0.52238798 1.524375
3.0099506 0.4726367 0.029999999
3.0099506 0.4726367 0.079812497
3.0099506 0.4726367 0.12962499
3.0099506 0.4726367 0.1794375
3.0099506 0.4726367 0.22925
3.0099506 0.4726367 0.27906248
3.0099506 0.4726367 0.32887501
3.0099506 0.4726367 0.3786875
3.0099506 0.4726367 0.4285
3.0099506 0.4726367 0.47831249
3.0099506 0.4726367 0.52812499
3.0099506 0.4726367 0.57793748
3.0099506 0.4726367 0.62774998
3.0099506 0.4726367 0.67756248
3.0099506 0.4726367 0.72737497
3.0099506 0.4726367 0.77718747
3.0099506 0.4726367 0.82699996
3.0099506 0.4726367 0.87681246
3.0099506 0.4726367 0.92662495
3.0099506 0.4726367 0.97643745
3.0099506 0.4726367 1.524375
3.0099506 0.42288542 0.97643745
3.0099506 0.42288542 1.524375
3.0099506 0.37313414 0.97643745
3.0099506 0.37313414 1.524375
3.0099506 0.32338285 0.97643745
3.0099506 0.32338285 1.524375
3.0099506 0.27363157 0.97643745
3.0099506 0.27363157 1.524375
3.0099506 0.22388077 0.97643745
3.0099506 0.22388077 1.524375
3.0099506 0.17412949 0.97643745
3.0099506 0.17412949 1.524375
3.0099506 0.1243782 0.97643745
3.0099506 0.1243782 1.524375
3.0099506 0.074626923 0.97643745
3.0099506 0.074626923 1.524375
3.0099506 0.024875641 0.97643745
3.0099506 0.024875641 1.524375
3.0099506 -0.024875641 0.97643745
3.0099506 -0.024875641 1.524375
3.0099506 -0.074626923 0.97643745
3.0099506 -0.074626923 1.524375
3.0099506 -0.1243782 0.97643745
3.0099506 -0.1243782 1.524375
3.0099506 -0.17412949 0.97643745
3.0099506 -0.17412949 1.524375
3.0099506 -0.22388077 0.97643745
3.0099506 -0.22388077 1.524375
3.0099506 -0.27363205 0.97643745
3.0099506 -0.27363205 1.524375
3.0099506 -0.32338333 0.97643745
3.0099506 -0.32338333 1.524375
3.0099506 -0.37313461 0.97643745
3.0099506 -0.37313461 1.524375
3.0099506 -0.42288542 0.97643745
3.0099506 -0.42288542 1.524375
3.0099506 -0.4726367 0.029999999
3.0099506 -0.4726367 0.079812497
3.0099506 -0.4726367 0.12962499
3.0099506 -0.4726367 0.1794375
3.0099506 -0.4726367 0.22925
3.0099506 -0.4726367 0.27906248
3.0099506 -0.4726367 0.32887501
3.0099506 -0.4726367 0.3786875
3.0099506 -0.4726367 0.4285
3.0099506 -0.4726367 0.47831249
3.0099506 -0.4726367 0.52812499
3.0099506 -0.4726367 0.57793748
3.0099506 -0.4726367 0.62774998
3.0099506 -0.4726367 0.67756248
3.0099506 -0.4726367 0.72737497
3.0099506 -0.4726367 0.77718747
3.0099506 -0.4726367 0.82699996
3.0099506 -0.4726367 0.87681246
3.0099506 -0.4726367 0.92662495
3.0099506 -0.4726367 0.97643745
3.0099506 -0.4726367 1.524375
3.0099506 -0.52238798 0.029999999
3.0099506 -0.52238798 0.079812497
3.0099506 -0.52238798 0.12962499
3.0099506 -0.52238798 0.1794375
3.0099506 -0.52238798 0.22925
3.0099506 -0.52238798 0.27906248
3.0099506 -0.52238798 0.32887501
3.0099506 -0.52238798 0.3786875
3.0099506 -0.52238798 0.4285
3.0099506 -0.52238798 0.47831249
3.0099506 -0.52238798 0.52812499
3.0099506 -0.52238798 0.57793748
3.0099506 -0.52238798 0.62774998
3.0099506 -0.52238798 0.67756248
3.0099506 -0.52238798 0.72737497
3.0099506 -0.52238798 0.77718747
3.0099506 -0.52238798 0.82699996
3.0099506 -0.52238798 0.87681246
3.0099506 -0.52238798 0.92662495
3.0099506 -0.52238798 1.524375
3.0099506 -0.57213926 1.524375
3.0099506 -0.62189054 1.524375
3.0099506 -0.67164183 1.524375
3.0099506 -0.72139311 1.524375
3.0099506 -0.77114439 1.524375
3.0099506 -0.82089567 1.524375
3.0099506 -0.87064695 1.524375
3.0099506 -0.92039824 1.524375
3.0099506 -0.97014952 1.524375
3.0099506 -1.0199008 0.029999999
3.0099506 -1.0199008 0.079812497
3.0099506 -1.0199008 0.12962499
3.0099506 -1.0199008 0.1794375
3.0099506 -1.0199008 0.22925
3.0099506 -1.0199008 0.27906248
3.0099506 -1.0199008 0.32887501
3.0099506 -1.0199008 0.3786875
3.0099506 -1.0199008 0.4285
3.0099506 -1.0199008 0.47831249
3.0099506 -1.0199008 0.52812499
3.0099506 -1.0199008 0.57793748
3.0099506 -1.0199008 0.62774998
3.0099506 -1.0199008 0.67756248
3.0099506 -1.0199008 0.72737497
3.0099506 -1.0199008 0.77718747
3.0099506 -1.0199008 0.82699996
3.0099506 -1.0199008 0.87681246
3.0099506 -1.0199008 0.92662495
3.0099506 -1.0199008 0.97643745
3.0099506 -1.0199008 1.02625
3.0099506 -1.0199008 1.0760624
3.0099506 -1.0199008 1.125875
3.0099506 -1.0199008 1.1756874
3.0099506 -1.0199008 1.2255
3.0099506 -1.0199008 1.2753124
3.0099506 -1.0199008 1.325125
3.0099506 -1.0199008 1.3749374
3.0099506 -1.0199008 1.42475
3.0099506 -1.0199008 1.4745624
3.0099506 -1.0199008 1.524375
3.0597019 1.0199003 0.029999999
3.0597019 1.0199003 0.079812497
3.0597019 1.0199003 0.12962499
3.0597019 1.0199003 0.1794375
3.0597019 1.0199003 0.22925
3.0597019 1.0199003 0.27906248
3.0597019 1.0199003 0.32887501
3.0597019 1.0199003 0.3786875
3.0597019 1.0199003 0.4285
3.0597019 1.0199003 0.47831249
3.0597019 1.0199003 0.52812499
3.0597019 1.0199003 0.57793748
3.0597019 1.0199003 0.62774998
3.0597019 1.0199003 0.67756248
3.0597019 1.0199003 0.72737497
3.0597019 1.0199003 0.77718747
3.0597019 1.0199003 0.82699996
3.0597019 1.0199003 0.87681246
3.0597019 1.0199003 0.92662495
